# .PCD v0.7 - Point Cloud Data file format
VERSION 0.7
FIELDS x y z rgb label
SIZE 4 4 4 4 4
TYPE F F F F U
COUNT 1 1 1 1 1
WIDTH 748
HEIGHT 1
VIEWPOINT 0 0 0 1 0 0 0
POINTS 748
DATA ascii
-1.284321 -1.979422 -18.485348 1.880790849211783e-38 1936679753
-1.325722 -2.868220 -19.081238 1.880790849211783e-38 1936679753
-1.311214 -2.713084 -18.872423 1.880790849211783e-38 1936679753
-1.283161 -1.894378 -18.468649 1.880790849211783e-38 1936679753
-1.281476 -1.770951 -18.444408 1.880790849211783e-38 1936679753
-1.299442 -2.585253 -18.702991 1.880790849211783e-38 1936679753
-1.292811 -2.465299 -18.607544 1.880790849211783e-38 1936679753
-1.270637 -0.976503 -18.288391 1.880790849211783e-38 1936679753
-1.269398 -0.885700 -18.270561 1.880790849211783e-38 1936679753
-1.279588 -1.632482 -18.417219 1.880790849211783e-38 1936679753
-1.278435 -1.548062 -18.400635 1.880790849211783e-38 1936679753
-1.267698 -0.761135 -18.246096 1.880790849211783e-38 1936679753
-1.266516 -0.674513 -18.229088 1.880790849211783e-38 1936679753
-1.276816 -1.429366 -18.377327 1.880790849211783e-38 1936679753
-1.275201 -1.310969 -18.354078 1.880790849211783e-38 1936679753
-1.264824 -0.550512 -18.204731 1.880790849211783e-38 1936679753
-1.265613 -0.461273 -18.216091 1.880790849211783e-38 1936679753
-1.273901 -1.215706 -18.335367 1.880790849211783e-38 1936679753
-1.272293 -1.097850 -18.312223 1.880790849211783e-38 1936679753
-1.272755 0.328153 -18.318884 1.880790849211783e-38 1936679753
-1.273675 0.429813 -18.332121 1.880790849211783e-38 1936679753
-1.266928 -0.316028 -18.235008 1.880790849211783e-38 1936679753
-1.267771 -0.222764 -18.247149 1.880790849211783e-38 1936679753
-1.274698 0.542941 -18.346851 1.880790849211783e-38 1936679753
-1.275518 0.633574 -18.358652 1.880790849211783e-38 1936679753
-1.268785 -0.110683 -18.261744 1.880790849211783e-38 1936679753
-1.269665 -0.013400 -18.274410 1.880790849211783e-38 1936679753
-1.402598 -3.690261 -20.187717 1.880790849211783e-38 1936679753
-1.380379 -3.452674 -19.867922 1.880790849211783e-38 1936679753
-1.360783 -3.243127 -19.585867 1.880790849211783e-38 1936679753
-1.340327 -3.024399 -19.291456 1.880790849211783e-38 1936679753
-1.345478 -2.322087 -18.556015 1.880790849211783e-38 1936679753
-1.342963 -2.222847 -18.521330 1.880790849211783e-38 1936679753
-1.324914 0.106437 -18.272413 1.880790849211783e-38 1936679753
-1.325904 0.211454 -18.286074 1.880790849211783e-38 1936679753
-1.340915 -2.109542 -18.493090 1.880790849211783e-38 1936679753
-1.339042 -1.977910 -18.467266 1.880790849211783e-38 1936679753
-1.381967 -2.865529 -19.059256 1.880790849211783e-38 1936679753
-1.366858 -2.710567 -18.850878 1.880790849211783e-38 1936679753
-1.337834 -1.892931 -18.450592 1.880790849211783e-38 1936679753
-1.336079 -1.769600 -18.426394 1.880790849211783e-38 1936679753
-1.356417 -2.586345 -18.706890 1.880790849211783e-38 1936679753
-1.349116 -2.465647 -18.606190 1.880790849211783e-38 1936679753
-1.324786 -0.975764 -18.270649 1.880790849211783e-38 1936679753
-1.323495 -0.885031 -18.252848 1.880790849211783e-38 1936679753
-1.334111 -1.631238 -18.399250 1.880790849211783e-38 1936679753
-1.332911 -1.546884 -18.382702 1.880790849211783e-38 1936679753
-1.321725 -0.760560 -18.228430 1.880790849211783e-38 1936679753
-1.320493 -0.674005 -18.211445 1.880790849211783e-38 1936679753
-1.331223 -1.428279 -18.359430 1.880790849211783e-38 1936679753
-1.329541 -1.309974 -18.336222 1.880790849211783e-38 1936679753
-1.318731 -0.550098 -18.187136 1.880790849211783e-38 1936679753
-1.319563 -0.460929 -18.198610 1.880790849211783e-38 1936679753
-1.328186 -1.214785 -18.317545 1.880790849211783e-38 1936679753
-1.326511 -1.097018 -18.294437 1.880790849211783e-38 1936679753
-1.327003 0.327906 -18.301226 1.880790849211783e-38 1936679753
-1.327961 0.429490 -18.314436 1.880790849211783e-38 1936679753
-1.320932 -0.315792 -18.217491 1.880790849211783e-38 1936679753
-1.321810 -0.222598 -18.229612 1.880790849211783e-38 1936679753
-1.329028 0.542533 -18.329144 1.880790849211783e-38 1936679753
-1.329882 0.633098 -18.340925 1.880790849211783e-38 1936679753
-1.322866 -0.110600 -18.244179 1.880790849211783e-38 1936679753
-1.323784 -0.013390 -18.256826 1.880790849211783e-38 1936679753
-1.533845 -4.036782 -21.153858 1.880790849211783e-38 1936679753
-1.462025 -3.686599 -20.163366 1.880790849211783e-38 1936679753
-1.438888 -3.449303 -19.844271 1.880790849211783e-38 1936679753
-1.418480 -3.240005 -19.562824 1.880790849211783e-38 1936679753
-1.397178 -3.021531 -19.269037 1.880790849211783e-38 1936679753
-1.401647 -2.322436 -18.554663 1.880790849211783e-38 1936679753
-1.399027 -2.223181 -18.519974 1.880790849211783e-38 1936679753
-1.378997 0.106358 -18.254831 1.880790849211783e-38 1936679753
-1.380028 0.211298 -18.268473 1.880790849211783e-38 1936679753
-1.396000 -2.108509 -18.479904 1.880790849211783e-38 1936679753
-1.393681 -1.976418 -18.449215 1.880790849211783e-38 1936679753
-1.438111 -2.862877 -19.037365 1.880790849211783e-38 1936679753
-1.422402 -2.708085 -18.829414 1.880790849211783e-38 1936679753
-1.392424 -1.891505 -18.432571 1.880790849211783e-38 1936679753
-1.390599 -1.768268 -18.408415 1.880790849211783e-38 1936679753
-1.413443 -2.587465 -18.710815 1.880790849211783e-38 1936679753
-1.405437 -2.466019 -18.604839 1.880790849211783e-38 1936679753
-1.378854 -0.975036 -18.252935 1.880790849211783e-38 1936679753
-1.377512 -0.884371 -18.235165 1.880790849211783e-38 1936679753
-1.388552 -1.630012 -18.381315 1.880790849211783e-38 1936679753
-1.387304 -1.545723 -18.364796 1.880790849211783e-38 1936679753
-1.375670 -0.759994 -18.210787 1.880790849211783e-38 1936679753
-1.374389 -0.673503 -18.193834 1.880790849211783e-38 1936679753
-1.385549 -1.427208 -18.341564 1.880790849211783e-38 1936679753
-1.383799 -1.308993 -18.318394 1.880790849211783e-38 1936679753
-1.372557 -0.549689 -18.169571 1.880790849211783e-38 1936679753
-1.373432 -0.460589 -18.181152 1.880790849211783e-38 1936679753
-1.382391 -1.213876 -18.299751 1.880790849211783e-38 1936679753
-1.380648 -1.096198 -18.276686 1.880790849211783e-38 1936679753
-1.381170 0.327664 -18.283594 1.880790849211783e-38 1936679753
-1.382167 0.429172 -18.296785 1.880790849211783e-38 1936679753
-1.374855 -0.315560 -18.200003 1.880790849211783e-38 1936679753
-1.375769 -0.222433 -18.212103 1.880790849211783e-38 1936679753
-1.383276 0.542130 -18.311466 1.880790849211783e-38 1936679753
-1.384164 0.632628 -18.323225 1.880790849211783e-38 1936679753
-1.376868 -0.110518 -18.226646 1.880790849211783e-38 1936679753
-1.377822 -0.013380 -18.239273 1.880790849211783e-38 1936679753
-1.594968 -4.030039 -21.113806 1.880790849211783e-38 1936679753
-1.521340 -3.682989 -20.139126 1.880790849211783e-38 1936679753
-1.497287 -3.445978 -19.820717 1.880790849211783e-38 1936679753
-1.476071 -3.236926 -19.539873 1.880790849211783e-38 1936679753
-1.453925 -3.018703 -19.246704 1.880790849211783e-38 1936679753
-1.457835 -2.322809 -18.553322 1.880790849211783e-38 1936679753
-1.455109 -2.223536 -18.518629 1.880790849211783e-38 1936679753
-1.433001 0.106281 -18.237274 1.880790849211783e-38 1936679753
-1.434071 0.211144 -18.250887 1.880790849211783e-38 1936679753
-1.451959 -2.108844 -18.478550 1.880790849211783e-38 1936679753
-1.448285 -1.975009 -18.431786 1.880790849211783e-38 1936679753
-1.494155 -2.860262 -19.015558 1.880790849211783e-38 1936679753
-1.478801 -2.707382 -18.820150 1.880790849211783e-38 1936679753
-1.446933 -1.890097 -18.414576 1.880790849211783e-38 1936679753
-1.445038 -1.766954 -18.390463 1.880790849211783e-38 1936679753
-1.470520 -2.588613 -18.714766 1.880790849211783e-38 1936679753
-1.462031 -2.466842 -18.606720 1.880790849211783e-38 1936679753
-1.432842 -0.974318 -18.235250 1.880790849211783e-38 1936679753
-1.431448 -0.883720 -18.217510 1.880790849211783e-38 1936679753
-1.442912 -1.628802 -18.363407 1.880790849211783e-38 1936679753
-1.441616 -1.544577 -18.346914 1.880790849211783e-38 1936679753
-1.429536 -0.759435 -18.193172 1.880790849211783e-38 1936679753
-1.428206 -0.673009 -18.176250 1.880790849211783e-38 1936679753
-1.439794 -1.426152 -18.323727 1.880790849211783e-38 1936679753
-1.437976 -1.308025 -18.300592 1.880790849211783e-38 1936679753
-1.426313 -0.549290 -18.152157 1.880790849211783e-38 1936679753
-1.427221 -0.460255 -18.163717 1.880790849211783e-38 1936679753
-1.436514 -1.212979 -18.281984 1.880790849211783e-38 1936679753
-1.434705 -1.095390 -18.258959 1.880790849211783e-38 1936679753
-1.435257 0.327424 -18.265985 1.880790849211783e-38 1936679753
-1.436292 0.428858 -18.279160 1.880790849211783e-38 1936679753
-1.428700 -0.315330 -18.182533 1.880790849211783e-38 1936679753
-1.429649 -0.222271 -18.194618 1.880790849211783e-38 1936679753
-1.437443 0.541734 -18.293810 1.880790849211783e-38 1936679753
-1.438642 0.632286 -18.309061 1.880790849211783e-38 1936679753
-1.430790 -0.110438 -18.209139 1.880790849211783e-38 1936679753
-1.431781 -0.013371 -18.221743 1.880790849211783e-38 1936679753
-1.655908 -4.023399 -21.074121 1.880790849211783e-38 1936679753
-1.580544 -3.679430 -20.114992 1.880790849211783e-38 1936679753
-1.555578 -3.442701 -19.797264 1.880790849211783e-38 1936679753
-1.533557 -3.233891 -19.517015 1.880790849211783e-38 1936679753
-1.510570 -3.015916 -19.224466 1.880790849211783e-38 1936679753
-1.514037 -2.323202 -18.551985 1.880790849211783e-38 1936679753
-1.511205 -2.223913 -18.517290 1.880790849211783e-38 1936679753
-1.486923 0.106204 -18.219744 1.880790849211783e-38 1936679753
-1.488032 0.210992 -18.233335 1.880790849211783e-38 1936679753
-1.507935 -2.109201 -18.477211 1.880790849211783e-38 1936679753
-1.504117 -1.975342 -18.430437 1.880790849211783e-38 1936679753
-1.550096 -2.857685 -18.993832 1.880790849211783e-38 1936679753
-1.536252 -2.708618 -18.824196 1.880790849211783e-38 1936679753
-1.501658 -1.889088 -18.400299 1.880790849211783e-38 1936679753
-1.499392 -1.765658 -18.372540 1.880790849211783e-38 1936679753
-1.527646 -2.589789 -18.718746 1.880790849211783e-38 1936679753
-1.518823 -2.467956 -18.610628 1.880790849211783e-38 1936679753
-1.486747 -0.973610 -18.217596 1.880790849211783e-38 1936679753
-1.485302 -0.883078 -18.199883 1.880790849211783e-38 1936679753
-1.497188 -1.627610 -18.345533 1.880790849211783e-38 1936679753
-1.495845 -1.543447 -18.329071 1.880790849211783e-38 1936679753
-1.483319 -0.758884 -18.175585 1.880790849211783e-38 1936679753
-1.481940 -0.672521 -18.158691 1.880790849211783e-38 1936679753
-1.493955 -1.425110 -18.305918 1.880790849211783e-38 1936679753
-1.492071 -1.307071 -18.282829 1.880790849211783e-38 1936679753
-1.479988 -0.548897 -18.134773 1.880790849211783e-38 1936679753
-1.480930 -0.459925 -18.146313 1.880790849211783e-38 1936679753
-1.490554 -1.212095 -18.264244 1.880790849211783e-38 1936679753
-1.488678 -1.094592 -18.241261 1.880790849211783e-38 1936679753
-1.489262 0.327188 -18.248405 1.880790849211783e-38 1936679753
-1.490335 0.428549 -18.261557 1.880790849211783e-38 1936679753
-1.482463 -0.315104 -18.165096 1.880790849211783e-38 1936679753
-1.483447 -0.222112 -18.177158 1.880790849211783e-38 1936679753
-1.491728 0.541415 -18.278629 1.880790849211783e-38 1936679753
-1.494337 0.632492 -18.310593 1.880790849211783e-38 1936679753
-1.484630 -0.110358 -18.191654 1.880790849211783e-38 1936679753
-1.485657 -0.013361 -18.204233 1.880790849211783e-38 1936679753
-1.716662 -4.016864 -21.034811 1.880790849211783e-38 1936679753
-1.639634 -3.675923 -20.090961 1.880790849211783e-38 1936679753
-1.613760 -3.439472 -19.773918 1.880790849211783e-38 1936679753
-1.590936 -3.230901 -19.494255 1.880790849211783e-38 1936679753
-1.567110 -3.013167 -19.202307 1.880790849211783e-38 1936679753
-1.570264 -2.323618 -18.550655 1.880790849211783e-38 1936679753
-1.567327 -2.224310 -18.515957 1.880790849211783e-38 1936679753
-1.540771 0.106129 -18.202238 1.880790849211783e-38 1936679753
-1.541920 0.210842 -18.215805 1.880790849211783e-38 1936679753
-1.563933 -2.109577 -18.475872 1.880790849211783e-38 1936679753
-1.559974 -1.975693 -18.429096 1.880790849211783e-38 1936679753
-1.605945 -2.855144 -18.972187 1.880790849211783e-38 1936679753
-1.593764 -2.709885 -18.828278 1.880790849211783e-38 1936679753
-1.557423 -1.889424 -18.398954 1.880790849211783e-38 1936679753
-1.553726 -1.764443 -18.355286 1.880790849211783e-38 1936679753
-1.584831 -2.590993 -18.722754 1.880790849211783e-38 1936679753
-1.575673 -2.469096 -18.614559 1.880790849211783e-38 1936679753
-1.540578 -0.972911 -18.199961 1.880790849211783e-38 1936679753
-1.539082 -0.882445 -18.182283 1.880790849211783e-38 1936679753
-1.551390 -1.626434 -18.327686 1.880790849211783e-38 1936679753
-1.549999 -1.542333 -18.311247 1.880790849211783e-38 1936679753
-1.537028 -0.758341 -18.158022 1.880790849211783e-38 1936679753
-1.535601 -0.672040 -18.141159 1.880790849211783e-38 1936679753
-1.548043 -1.424083 -18.288141 1.880790849211783e-38 1936679753
-1.546091 -1.306130 -18.265085 1.880790849211783e-38 1936679753
-1.533590 -0.548508 -18.117405 1.880790849211783e-38 1936679753
-1.534566 -0.459599 -18.128927 1.880790849211783e-38 1936679753
-1.544521 -1.211223 -18.246540 1.880790849211783e-38 1936679753
-1.542579 -1.093806 -18.223593 1.880790849211783e-38 1936679753
-1.543193 0.326955 -18.230852 1.880790849211783e-38 1936679753
-1.544304 0.428243 -18.243979 1.880790849211783e-38 1936679753
-1.536153 -0.314880 -18.147682 1.880790849211783e-38 1936679753
-1.537172 -0.221954 -18.159721 1.880790849211783e-38 1936679753
-1.547366 0.541596 -18.280151 1.880790849211783e-38 1936679753
-1.550073 0.632703 -18.312126 1.880790849211783e-38 1936679753
-1.538398 -0.110280 -18.174198 1.880790849211783e-38 1936679753
-1.539461 -0.013352 -18.186754 1.880790849211783e-38 1936679753
-1.777245 -4.010434 -20.995872 1.880790849211783e-38 1936679753
-1.698622 -3.672466 -20.067038 1.880790849211783e-38 1936679753
-1.671841 -3.436288 -19.750664 1.880790849211783e-38 1936679753
-1.648218 -3.227952 -19.471584 1.880790849211783e-38 1936679753
-1.623557 -3.010460 -19.180243 1.880790849211783e-38 1936679753
-1.626512 -2.324056 -18.549334 1.880790849211783e-38 1936679753
-1.623469 -2.224729 -18.514633 1.880790849211783e-38 1936679753
-1.594544 0.106054 -18.184757 1.880790849211783e-38 1936679753
-1.595732 0.210694 -18.198303 1.880790849211783e-38 1936679753
-1.619954 -2.109973 -18.474539 1.880790849211783e-38 1936679753
-1.615852 -1.976063 -18.427759 1.880790849211783e-38 1936679753
-1.662442 -2.853914 -18.959091 1.880790849211783e-38 1936679753
-1.651331 -2.711180 -18.832382 1.880790849211783e-38 1936679753
-1.613209 -1.889777 -18.397615 1.880790849211783e-38 1936679753
-1.609379 -1.764772 -18.353943 1.880790849211783e-38 1936679753
-1.642072 -2.592225 -18.726786 1.880790849211783e-38 1936679753
-1.632578 -2.470263 -18.618515 1.880790849211783e-38 1936679753
-1.594333 -0.972223 -18.182356 1.880790849211783e-38 1936679753
-1.592786 -0.881821 -18.164707 1.880790849211783e-38 1936679753
-1.605514 -1.625276 -18.309870 1.880790849211783e-38 1936679753
-1.604075 -1.541235 -18.293457 1.880790849211783e-38 1936679753
-1.590663 -0.757806 -18.140491 1.880790849211783e-38 1936679753
-1.589186 -0.671566 -18.123653 1.880790849211783e-38 1936679753
-1.602052 -1.423070 -18.270386 1.880790849211783e-38 1936679753
-1.600034 -1.305202 -18.247375 1.880790849211783e-38 1936679753
-1.587118 -0.548126 -18.100063 1.880790849211783e-38 1936679753
-1.588126 -0.459279 -18.111570 1.880790849211783e-38 1936679753
-1.598410 -1.210364 -18.228855 1.880790849211783e-38 1936679753
-1.596402 -1.093031 -18.205944 1.880790849211783e-38 1936679753
-1.597049 0.326726 -18.213324 1.880790849211783e-38 1936679753
-1.599550 0.428305 -18.241854 1.880790849211783e-38 1936679753
-1.589768 -0.314661 -18.130291 1.880790849211783e-38 1936679753
-1.590822 -0.221799 -18.142311 1.880790849211783e-38 1936679753
-1.603042 0.541782 -18.281679 1.880790849211783e-38 1936679753
-1.605847 0.632921 -18.313667 1.880790849211783e-38 1936679753
-1.592089 -0.110203 -18.156757 1.880790849211783e-38 1936679753
-1.593188 -0.013342 -18.169298 1.880790849211783e-38 1936679753
-1.837655 -4.004105 -20.957291 1.880790849211783e-38 1936679753
-1.757504 -3.669060 -20.043217 1.880790849211783e-38 1936679753
-1.729821 -3.433151 -19.727505 1.880790849211783e-38 1936679753
-1.705400 -3.225047 -19.449007 1.880790849211783e-38 1936679753
-1.679906 -3.007791 -19.158260 1.880790849211783e-38 1936679753
-1.682778 -2.324517 -18.548018 1.880790849211783e-38 1936679753
-1.679629 -2.225169 -18.513313 1.880790849211783e-38 1936679753
-1.648237 0.105981 -18.167303 1.880790849211783e-38 1936679753
-1.649464 0.210548 -18.180822 1.880790849211783e-38 1936679753
-1.675992 -2.110389 -18.473215 1.880790849211783e-38 1936679753
-1.671747 -1.976452 -18.426428 1.880790849211783e-38 1936679753
-1.720456 -2.855318 -18.963314 1.880790849211783e-38 1936679753
-1.708953 -2.712505 -18.836517 1.880790849211783e-38 1936679753
-1.669012 -1.890149 -18.396280 1.880790849211783e-38 1936679753
-1.665049 -1.765118 -18.352602 1.880790849211783e-38 1936679753
-1.699365 -2.593484 -18.730843 1.880790849211783e-38 1936679753
-1.689536 -2.471457 -18.622503 1.880790849211783e-38 1936679753
-1.648009 -0.971544 -18.164780 1.880790849211783e-38 1936679753
-1.646410 -0.881207 -18.147161 1.880790849211783e-38 1936679753
-1.660613 -1.625166 -18.303711 1.880790849211783e-38 1936679753
-1.658072 -1.540153 -18.275698 1.880790849211783e-38 1936679753
-1.644217 -0.757278 -18.122986 1.880790849211783e-38 1936679753
-1.642691 -0.671099 -18.106174 1.880790849211783e-38 1936679753
-1.655982 -1.422072 -18.252665 1.880790849211783e-38 1936679753
-1.653898 -1.304288 -18.229691 1.880790849211783e-38 1936679753
-1.640566 -0.547749 -18.082748 1.880790849211783e-38 1936679753
-1.641608 -0.458962 -18.094234 1.880790849211783e-38 1936679753
-1.652220 -1.209517 -18.211201 1.880790849211783e-38 1936679753
-1.650145 -1.092267 -18.188330 1.880790849211783e-38 1936679753
-1.651898 0.326712 -18.207653 1.880790849211783e-38 1936679753
-1.655138 0.428456 -18.243362 1.880790849211783e-38 1936679753
-1.643304 -0.314444 -18.112925 1.880790849211783e-38 1936679753
-1.644393 -0.221646 -18.124928 1.880790849211783e-38 1936679753
-1.658753 0.541973 -18.283205 1.880790849211783e-38 1936679753
-1.661656 0.633144 -18.315207 1.880790849211783e-38 1936679753
-1.645701 -0.110127 -18.139349 1.880790849211783e-38 1936679753
-1.646837 -0.013333 -18.151869 1.880790849211783e-38 1936679753
-1.897893 -3.997878 -20.919075 1.880790849211783e-38 1936679753
-1.816279 -3.665704 -20.019501 1.880790849211783e-38 1936679753
-1.787696 -3.430061 -19.704449 1.880790849211783e-38 1936679753
-1.762481 -3.222185 -19.426521 1.880790849211783e-38 1936679753
-1.736156 -3.005162 -19.136362 1.880790849211783e-38 1936679753
-1.739072 -2.324999 -18.546707 1.880790849211783e-38 1936679753
-1.735817 -2.225630 -18.511999 1.880790849211783e-38 1936679753
-1.701861 0.105909 -18.149864 1.880790849211783e-38 1936679753
-1.703590 0.210461 -18.168299 1.880790849211783e-38 1936679753
-1.732057 -2.110826 -18.471897 1.880790849211783e-38 1936679753
-1.727669 -1.976860 -18.425102 1.880790849211783e-38 1936679753
-1.778535 -2.856754 -18.967573 1.880790849211783e-38 1936679753
-1.766638 -2.713861 -18.840689 1.880790849211783e-38 1936679753
-1.724842 -1.890538 -18.394951 1.880790849211783e-38 1936679753
-1.720746 -1.765481 -18.351267 1.880790849211783e-38 1936679753
-1.756722 -2.594773 -18.734938 1.880790849211783e-38 1936679753
-1.746556 -2.472677 -18.626520 1.880790849211783e-38 1936679753
-1.701614 -0.970876 -18.147230 1.880790849211783e-38 1936679753
-1.699965 -0.880601 -18.129635 1.880790849211783e-38 1936679753
-1.716161 -1.625499 -18.302372 1.880790849211783e-38 1936679753
-1.713372 -1.540322 -18.272619 1.880790849211783e-38 1936679753
-1.697702 -0.756758 -18.105503 1.880790849211783e-38 1936679753
-1.696128 -0.670639 -18.088720 1.880790849211783e-38 1936679753
-1.709841 -1.421089 -18.234968 1.880790849211783e-38 1936679753
-1.707690 -1.303387 -18.212030 1.880790849211783e-38 1936679753
-1.693946 -0.547377 -18.065454 1.880790849211783e-38 1936679753
-1.695021 -0.458651 -18.076920 1.880790849211783e-38 1936679753
-1.705959 -1.208682 -18.193571 1.880790849211783e-38 1936679753
-1.703819 -1.091515 -18.170740 1.880790849211783e-38 1936679753
-1.707420 0.326830 -18.209150 1.880790849211783e-38 1936679753
-1.710770 0.428610 -18.244875 1.880790849211783e-38 1936679753
-1.696771 -0.314230 -18.095579 1.880790849211783e-38 1936679753
-1.697895 -0.221496 -18.107565 1.880790849211783e-38 1936679753
-1.714508 0.542169 -18.284735 1.880790849211783e-38 1936679753
-1.717510 0.633374 -18.316755 1.880790849211783e-38 1936679753
-1.699245 -0.110052 -18.121962 1.880790849211783e-38 1936679753
-1.700417 -0.013324 -18.134460 1.880790849211783e-38 1936679753
-1.957971 -3.991752 -20.881205 1.880790849211783e-38 1936679753
-1.874957 -3.662399 -19.995886 1.880790849211783e-38 1936679753
-1.845477 -3.427017 -19.681482 1.880790849211783e-38 1936679753
-1.819470 -3.219366 -19.404125 1.880790849211783e-38 1936679753
-1.792317 -3.002572 -19.114552 1.880790849211783e-38 1936679753
-1.795391 -2.325505 -18.545410 1.880790849211783e-38 1936679753
-1.792031 -2.226113 -18.510696 1.880790849211783e-38 1936679753
-1.755468 0.105841 -18.133024 1.880790849211783e-38 1936679753
-1.759026 0.210539 -18.169779 1.880790849211783e-38 1936679753
-1.788148 -2.111283 -18.470589 1.880790849211783e-38 1936679753
-1.783617 -1.977287 -18.423786 1.880790849211783e-38 1936679753
-1.836676 -2.858222 -18.971865 1.880790849211783e-38 1936679753
-1.824383 -2.715244 -18.844879 1.880790849211783e-38 1936679753
-1.780697 -1.890946 -18.393631 1.880790849211783e-38 1936679753
-1.776468 -1.765861 -18.349943 1.880790849211783e-38 1936679753
-1.814138 -2.596089 -18.739056 1.880790849211783e-38 1936679753
-1.803634 -2.473924 -18.630556 1.880790849211783e-38 1936679753
-1.755146 -0.970216 -18.129700 1.880790849211783e-38 1936679753
-1.753446 -0.880004 -18.112141 1.880790849211783e-38 1936679753
-1.771733 -1.625848 -18.301035 1.880790849211783e-38 1936679753
-1.768852 -1.540652 -18.271280 1.880790849211783e-38 1936679753
-1.751113 -0.756246 -18.088045 1.880790849211783e-38 1936679753
-1.749491 -0.670185 -18.071289 1.880790849211783e-38 1936679753
-1.764809 -1.421072 -18.229513 1.880790849211783e-38 1936679753
-1.761409 -1.302499 -18.194393 1.880790849211783e-38 1936679753
-1.747254 -0.547011 -18.048180 1.880790849211783e-38 1936679753
-1.748363 -0.458344 -18.059629 1.880790849211783e-38 1936679753
-1.759625 -1.207860 -18.175970 1.880790849211783e-38 1936679753
-1.757418 -1.090773 -18.153173 1.880790849211783e-38 1936679753
-1.762983 0.326951 -18.210648 1.880790849211783e-38 1936679753
-1.766443 0.428769 -18.246393 1.880790849211783e-38 1936679753
-1.750166 -0.314019 -18.078259 1.880790849211783e-38 1936679753
-1.751324 -0.221347 -18.090221 1.880790849211783e-38 1936679753
-1.770304 0.542370 -18.286272 1.880790849211783e-38 1936679753
-1.773404 0.633609 -18.318296 1.880790849211783e-38 1936679753
-1.752716 -0.109978 -18.104597 1.880790849211783e-38 1936679753
-1.753924 -0.013315 -18.117075 1.880790849211783e-38 1936679753
-2.017889 -3.985726 -20.843695 1.880790849211783e-38 1936679753
-1.933536 -3.659144 -19.972370 1.880790849211783e-38 1936679753
-1.903161 -3.424019 -19.658617 1.880790849211783e-38 1936679753
-1.876364 -3.216589 -19.381813 1.880790849211783e-38 1936679753
-1.848946 -3.000929 -19.098604 1.880790849211783e-38 1936679753
-1.851736 -2.326033 -18.544119 1.880790849211783e-38 1936679753
-1.848269 -2.226617 -18.509398 1.880790849211783e-38 1936679753
-1.810832 0.105881 -18.134491 1.880790849211783e-38 1936679753
-1.814504 0.210619 -18.171265 1.880790849211783e-38 1936679753
-1.844264 -2.111761 -18.469288 1.880790849211783e-38 1936679753
-1.839589 -1.977732 -18.422472 1.880790849211783e-38 1936679753
-1.894880 -2.859720 -18.976179 1.880790849211783e-38 1936679753
-1.882190 -2.716659 -18.849106 1.880790849211783e-38 1936679753
-1.836578 -1.891371 -18.392315 1.880790849211783e-38 1936679753
-1.832214 -1.766257 -18.348618 1.880790849211783e-38 1936679753
-1.871615 -2.597433 -18.743200 1.880790849211783e-38 1936679753
-1.860773 -2.475198 -18.634623 1.880790849211783e-38 1936679753
-1.808607 -0.969568 -18.112202 1.880790849211783e-38 1936679753
-1.806856 -0.879415 -18.094667 1.880790849211783e-38 1936679753
-1.827330 -1.626212 -18.299706 1.880790849211783e-38 1936679753
-1.824358 -1.540996 -18.269941 1.880790849211783e-38 1936679753
-1.804453 -0.755741 -18.070610 1.880790849211783e-38 1936679753
-1.802783 -0.669738 -18.053885 1.880790849211783e-38 1936679753
-1.820187 -1.421389 -18.228172 1.880790849211783e-38 1936679753
-1.816035 -1.302327 -18.186590 1.880790849211783e-38 1936679753
-1.800492 -0.546650 -18.030933 1.880790849211783e-38 1936679753
-1.801633 -0.458041 -18.042364 1.880790849211783e-38 1936679753
-1.813219 -1.207050 -18.158396 1.880790849211783e-38 1936679753
-1.810946 -1.090042 -18.135635 1.880790849211783e-38 1936679753
-1.818587 0.327075 -18.212151 1.880790849211783e-38 1936679753
-1.822158 0.428932 -18.247910 1.880790849211783e-38 1936679753
-1.803489 -0.313812 -18.060959 1.880790849211783e-38 1936679753
-1.804683 -0.221201 -18.072906 1.880790849211783e-38 1936679753
-1.826142 0.542577 -18.287807 1.880790849211783e-38 1936679753
-1.829341 0.633851 -18.319851 1.880790849211783e-38 1936679753
-1.806116 -0.109905 -18.087257 1.880790849211783e-38 1936679753
-1.807360 -0.013306 -18.099714 1.880790849211783e-38 1936679753
-2.077651 -3.979799 -20.806528 1.880790849211783e-38 1936679753
-1.992017 -3.655938 -19.948957 1.880790849211783e-38 1936679753
-1.960750 -3.421066 -19.635838 1.880790849211783e-38 1936679753
-1.933166 -3.213854 -19.359592 1.880790849211783e-38 1936679753
-1.907545 -3.002513 -19.103020 1.880790849211783e-38 1936679753
-1.908103 -2.326583 -18.542833 1.880790849211783e-38 1936679753
-1.904529 -2.227142 -18.508102 1.880790849211783e-38 1936679753
-1.866235 0.105922 -18.135962 1.880790849211783e-38 1936679753
-1.870020 0.210700 -18.172749 1.880790849211783e-38 1936679753
-1.900401 -2.112257 -18.467987 1.880790849211783e-38 1936679753
-1.895583 -1.978197 -18.421165 1.880790849211783e-38 1936679753
-1.953143 -2.861250 -18.980528 1.880790849211783e-38 1936679753
-1.940057 -2.718102 -18.853355 1.880790849211783e-38 1936679753
-1.892479 -1.891814 -18.391003 1.880790849211783e-38 1936679753
-1.887982 -1.766670 -18.347300 1.880790849211783e-38 1936679753
-1.929151 -2.598806 -18.747374 1.880790849211783e-38 1936679753
-1.917970 -2.476499 -18.638718 1.880790849211783e-38 1936679753
-1.861992 -0.968928 -18.094727 1.880790849211783e-38 1936679753
-1.860190 -0.878836 -18.077221 1.880790849211783e-38 1936679753
-1.882948 -1.626592 -18.298382 1.880790849211783e-38 1936679753
-1.879886 -1.541355 -18.268618 1.880790849211783e-38 1936679753
-1.857719 -0.755244 -18.053204 1.880790849211783e-38 1936679753
-1.856001 -0.669298 -18.036505 1.880790849211783e-38 1936679753
-1.875586 -1.421719 -18.226835 1.880790849211783e-38 1936679753
-1.871307 -1.302629 -18.185247 1.880790849211783e-38 1936679753
-1.853655 -0.546295 -18.013708 1.880790849211783e-38 1936679753
-1.854828 -0.457743 -18.025116 1.880790849211783e-38 1936679753
-1.867870 -1.206984 -18.151848 1.880790849211783e-38 1936679753
-1.864400 -1.089323 -18.118124 1.880790849211783e-38 1936679753
-1.874230 0.327202 -18.213654 1.880790849211783e-38 1936679753
-1.877911 0.429099 -18.249432 1.880790849211783e-38 1936679753
-1.856740 -0.313608 -18.043688 1.880790849211783e-38 1936679753
-1.857966 -0.221057 -18.055607 1.880790849211783e-38 1936679753
-1.882019 0.542788 -18.289351 1.880790849211783e-38 1936679753
-1.885318 0.634099 -18.321405 1.880790849211783e-38 1936679753
-1.859441 -0.109834 -18.069939 1.880790849211783e-38 1936679753
-1.861927 -0.013306 -18.094099 1.880790849211783e-38 1936679753
-2.137254 -3.973972 -20.769711 1.880790849211783e-38 1936679753
-2.050398 -3.652783 -19.925646 1.880790849211783e-38 1936679753
-2.018242 -3.418159 -19.613155 1.880790849211783e-38 1936679753
-1.989873 -3.211162 -19.337465 1.880790849211783e-38 1936679753
-1.966205 -3.004130 -19.107468 1.880790849211783e-38 1936679753
-1.964502 -2.327155 -18.541553 1.880790849211783e-38 1936679753
-1.960822 -2.227689 -18.506817 1.880790849211783e-38 1936679753
-1.921685 0.105964 -18.137430 1.880790849211783e-38 1936679753
-1.925585 0.210784 -18.174236 1.880790849211783e-38 1936679753
-1.956571 -2.112775 -18.466694 1.880790849211783e-38 1936679753
-1.951610 -1.978681 -18.419868 1.880790849211783e-38 1936679753
-2.011477 -2.862813 -18.984913 1.880790849211783e-38 1936679753
-1.997993 -2.719577 -18.857643 1.880790849211783e-38 1936679753
-1.948413 -1.892276 -18.389694 1.880790849211783e-38 1936679753
-1.943782 -1.767100 -18.345985 1.880790849211783e-38 1936679753
-1.986755 -2.600208 -18.751577 1.880790849211783e-38 1936679753
-1.975234 -2.477827 -18.642838 1.880790849211783e-38 1936679753
-1.915312 -0.968299 -18.077278 1.880790849211783e-38 1936679753
-1.913460 -0.878266 -18.059797 1.880790849211783e-38 1936679753
-1.938598 -1.626986 -18.297056 1.880790849211783e-38 1936679753
-1.935444 -1.541729 -18.267290 1.880790849211783e-38 1936679753
-1.910920 -0.754755 -18.035822 1.880790849211783e-38 1936679753
-1.909153 -0.668864 -18.019146 1.880790849211783e-38 1936679753
-1.931016 -1.422063 -18.225502 1.880790849211783e-38 1936679753
-1.926609 -1.302943 -18.183907 1.880790849211783e-38 1936679753
-1.906753 -0.545945 -17.996498 1.880790849211783e-38 1936679753
-1.907960 -0.457450 -18.007889 1.880790849211783e-38 1936679753
-1.923070 -1.207274 -18.150499 1.880790849211783e-38 1936679753
-1.918699 -1.089132 -18.109243 1.880790849211783e-38 1936679753
-1.929921 0.327332 -18.215160 1.880790849211783e-38 1936679753
-1.933713 0.429270 -18.250954 1.880790849211783e-38 1936679753
-1.909925 -0.313407 -18.026430 1.880790849211783e-38 1936679753
-1.911186 -0.220915 -18.038340 1.880790849211783e-38 1936679753
-1.937945 0.543005 -18.290892 1.880790849211783e-38 1936679753
-1.941343 0.634353 -18.322968 1.880790849211783e-38 1936679753
-1.913657 -0.109818 -18.061661 1.880790849211783e-38 1936679753
-1.917248 -0.013311 -18.095549 1.880790849211783e-38 1936679753
-2.196713 -3.968241 -20.733229 1.880790849211783e-38 1936679753
-2.108689 -3.649676 -19.902426 1.880790849211783e-38 1936679753
-2.075646 -3.415298 -19.590567 1.880790849211783e-38 1936679753
-2.046494 -3.208511 -19.315416 1.880790849211783e-38 1936679753
-2.024936 -3.005781 -19.111948 1.880790849211783e-38 1936679753
-2.020931 -2.327749 -18.540279 1.880790849211783e-38 1936679753
-2.017144 -2.228257 -18.505539 1.880790849211783e-38 1936679753
-1.977180 0.106007 -18.138901 1.880790849211783e-38 1936679753
-1.981194 0.210870 -18.175726 1.880790849211783e-38 1936679753
-2.012769 -2.113313 -18.465408 1.880790849211783e-38 1936679753
-2.007664 -1.979183 -18.418571 1.880790849211783e-38 1936679753
-2.069878 -2.864406 -18.989325 1.880790849211783e-38 1936679753
-2.055994 -2.721081 -18.861958 1.880790849211783e-38 1936679753
-2.004375 -1.892755 -18.388393 1.880790849211783e-38 1936679753
-1.999610 -1.767547 -18.344677 1.880790849211783e-38 1936679753
-2.044424 -2.601637 -18.755808 1.880790849211783e-38 1936679753
-2.032562 -2.479181 -18.646980 1.880790849211783e-38 1936679753
-1.969178 -0.967982 -18.065498 1.880790849211783e-38 1936679753
-1.966661 -0.877704 -18.042400 1.880790849211783e-38 1936679753
-1.994276 -1.627397 -18.295742 1.880790849211783e-38 1936679753
-1.991030 -1.542117 -18.265968 1.880790849211783e-38 1936679753
-1.964051 -0.754273 -18.018463 1.880790849211783e-38 1936679753
-1.962237 -0.668438 -18.001810 1.880790849211783e-38 1936679753
-1.986474 -1.422420 -18.224171 1.880790849211783e-38 1936679753
-1.981939 -1.303270 -18.182568 1.880790849211783e-38 1936679753
-1.959784 -0.545601 -17.979313 1.880790849211783e-38 1936679753
-1.961024 -0.457161 -17.990688 1.880790849211783e-38 1936679753
-1.978297 -1.207576 -18.149155 1.880790849211783e-38 1936679753
-1.973800 -1.089404 -18.107895 1.880790849211783e-38 1936679753
-1.985656 0.327465 -18.216669 1.880790849211783e-38 1936679753
-1.989560 0.429445 -18.252481 1.880790849211783e-38 1936679753
-1.963042 -0.313208 -18.009201 1.880790849211783e-38 1936679753
-1.964670 -0.220812 -18.024134 1.880790849211783e-38 1936679753
-1.993916 0.543227 -18.292437 1.880790849211783e-38 1936679753
-1.997413 0.634612 -18.324528 1.880790849211783e-38 1936679753
-1.968916 -0.109862 -18.063089 1.880790849211783e-38 1936679753
-1.972612 -0.013317 -18.096996 1.880790849211783e-38 1936679753
-2.256028 -3.962609 -20.697092 1.880790849211783e-38 1936679753
-2.166888 -3.646617 -19.879305 1.880790849211783e-38 1936679753
-2.132962 -3.412481 -19.568066 1.880790849211783e-38 1936679753
-2.103029 -3.205903 -19.293457 1.880790849211783e-38 1936679753
-2.083736 -3.007466 -19.116463 1.880790849211783e-38 1936679753
-2.077385 -2.328367 -18.539017 1.880790849211783e-38 1936679753
-2.073492 -2.228847 -18.504269 1.880790849211783e-38 1936679753
-2.032715 0.106051 -18.140371 1.880790849211783e-38 1936679753
-2.036844 0.210957 -18.177214 1.880790849211783e-38 1936679753
-2.068994 -2.113871 -18.464127 1.880790849211783e-38 1936679753
-2.063745 -1.979704 -18.417284 1.880790849211783e-38 1936679753
-2.128343 -2.866032 -18.993773 1.880790849211783e-38 1936679753
-2.114059 -2.722615 -18.866299 1.880790849211783e-38 1936679753
-2.060363 -1.893253 -18.387102 1.880790849211783e-38 1936679753
-2.055463 -1.768010 -18.343374 1.880790849211783e-38 1936679753
-2.102155 -2.603096 -18.760069 1.880790849211783e-38 1936679753
-2.089951 -2.480563 -18.651155 1.880790849211783e-38 1936679753
-2.024173 -0.968232 -18.064144 1.880790849211783e-38 1936679753
-2.020624 -0.877513 -18.032469 1.880790849211783e-38 1936679753
-2.049978 -1.627822 -18.294430 1.880790849211783e-38 1936679753
-2.046641 -1.542520 -18.264650 1.880790849211783e-38 1936679753
-2.017112 -0.753798 -18.001123 1.880790849211783e-38 1936679753
-2.015249 -0.668018 -17.984501 1.880790849211783e-38 1936679753
-2.041957 -1.422791 -18.222847 1.880790849211783e-38 1936679753
-2.037295 -1.303609 -18.181238 1.880790849211783e-38 1936679753
-2.012745 -0.545262 -17.962154 1.880790849211783e-38 1936679753
-2.014017 -0.456877 -17.973507 1.880790849211783e-38 1936679753
-2.033550 -1.207890 -18.147818 1.880790849211783e-38 1936679753
-2.028925 -1.089686 -18.106548 1.880790849211783e-38 1936679753
-2.041434 0.327601 -18.218176 1.880790849211783e-38 1936679753
-2.045449 0.429624 -18.254011 1.880790849211783e-38 1936679753
-2.016223 -0.313034 -17.993191 1.880790849211783e-38 1936679753
-2.019848 -0.220903 -18.025545 1.880790849211783e-38 1936679753
-2.049928 0.543454 -18.293983 1.880790849211783e-38 1936679753
-2.053526 0.634878 -18.326096 1.880790849211783e-38 1936679753
-2.024217 -0.109908 -18.064528 1.880790849211783e-38 1936679753
-2.028018 -0.013322 -18.098448 1.880790849211783e-38 1936679753
-2.315197 -3.957075 -20.661297 1.880790849211783e-38 1936679753
-2.224992 -3.643610 -19.856291 1.880790849211783e-38 1936679753
-2.190185 -3.409710 -19.545660 1.880790849211783e-38 1936679753
-2.162364 -3.207625 -19.297390 1.880790849211783e-38 1936679753
-2.142601 -3.009185 -19.121014 1.880790849211783e-38 1936679753
-2.133875 -2.329006 -18.537756 1.880790849211783e-38 1936679753
-2.129875 -2.229459 -18.503008 1.880790849211783e-38 1936679753
-2.088302 0.106096 -18.141844 1.880790849211783e-38 1936679753
-2.092545 0.211047 -18.178707 1.880790849211783e-38 1936679753
-2.125253 -2.114449 -18.462854 1.880790849211783e-38 1936679753
-2.119860 -1.980245 -18.416002 1.880790849211783e-38 1936679753
-2.186882 -2.867690 -18.998249 1.880790849211783e-38 1936679753
-2.172197 -2.724179 -18.870674 1.880790849211783e-38 1936679753
-2.116385 -1.893769 -18.385813 1.880790849211783e-38 1936679753
-2.111351 -1.768491 -18.342079 1.880790849211783e-38 1936679753
-2.159959 -2.604583 -18.764355 1.880790849211783e-38 1936679753
-2.147412 -2.481971 -18.655355 1.880790849211783e-38 1936679753
-2.079202 -0.968491 -18.062790 1.880790849211783e-38 1936679753
-2.075555 -0.877748 -18.031111 1.880790849211783e-38 1936679753
-2.105716 -1.628264 -18.293121 1.880790849211783e-38 1936679753
-2.102287 -1.542938 -18.263334 1.880790849211783e-38 1936679753
-2.070563 -0.753495 -17.987736 1.880790849211783e-38 1936679753
-2.068201 -0.667604 -17.967216 1.880790849211783e-38 1936679753
-2.097474 -1.423175 -18.221523 1.880790849211783e-38 1936679753
-2.092683 -1.303960 -18.179909 1.880790849211783e-38 1936679753
-2.065644 -0.544928 -17.945007 1.880790849211783e-38 1936679753
-2.066949 -0.456597 -17.956343 1.880790849211783e-38 1936679753
-2.088836 -1.208215 -18.146481 1.880790849211783e-38 1936679753
-2.084084 -1.089978 -18.105204 1.880790849211783e-38 1936679753
-2.097263 0.327741 -18.219692 1.880790849211783e-38 1936679753
-2.101389 0.429807 -18.255539 1.880790849211783e-38 1936679753
-2.071352 -0.313166 -17.994591 1.880790849211783e-38 1936679753
-2.075078 -0.220996 -18.026964 1.880790849211783e-38 1936679753
-2.105993 0.543686 -18.295534 1.880790849211783e-38 1936679753
-2.109691 0.635150 -18.327660 1.880790849211783e-38 1936679753
-2.079567 -0.109954 -18.065966 1.880790849211783e-38 1936679753
-2.083474 -0.013328 -18.099899 1.880790849211783e-38 1936679753
-2.374231 -3.951633 -20.625816 1.880790849211783e-38 1936679753
-2.283012 -3.640650 -19.833364 1.880790849211783e-38 1936679753
-2.247325 -3.406983 -19.523338 1.880790849211783e-38 1936679753
-2.221861 -3.209510 -19.302118 1.880790849211783e-38 1936679753
-2.201541 -3.010937 -19.125593 1.880790849211783e-38 1936679753
-2.190398 -2.329669 -18.536507 1.880790849211783e-38 1936679753
-2.186291 -2.230091 -18.501747 1.880790849211783e-38 1936679753
-2.143936 0.106142 -18.143320 1.880790849211783e-38 1936679753
-2.148294 0.211138 -18.180197 1.880790849211783e-38 1936679753
-2.181545 -2.115048 -18.461588 1.880790849211783e-38 1936679753
-2.176008 -1.980804 -18.414726 1.880790849211783e-38 1936679753
-2.245494 -2.869380 -19.002762 1.880790849211783e-38 1936679753
-2.230406 -2.725774 -18.875078 1.880790849211783e-38 1936679753
-2.172440 -1.894304 -18.384533 1.880790849211783e-38 1936679753
-2.167270 -1.768989 -18.340786 1.880790849211783e-38 1936679753
-2.217832 -2.606099 -18.768673 1.880790849211783e-38 1936679753
-2.204942 -2.483408 -18.659588 1.880790849211783e-38 1936679753
-2.134261 -0.968759 -18.061440 1.880790849211783e-38 1936679753
-2.130517 -0.877991 -18.029755 1.880790849211783e-38 1936679753
-2.161484 -1.628721 -18.291822 1.880790849211783e-38 1936679753
-2.157964 -1.543370 -18.262026 1.880790849211783e-38 1936679753
-2.125390 -0.753703 -17.986370 1.880790849211783e-38 1936679753
-2.121831 -0.667431 -17.956251 1.880790849211783e-38 1936679753
-2.153022 -1.423573 -18.220207 1.880790849211783e-38 1936679753
-2.148103 -1.304324 -18.178581 1.880790849211783e-38 1936679753
-2.118479 -0.544599 -17.927883 1.880790849211783e-38 1936679753
-2.120584 -0.456487 -17.945698 1.880790849211783e-38 1936679753
-2.144152 -1.208551 -18.145147 1.880790849211783e-38 1936679753
-2.139274 -1.090281 -18.103863 1.880790849211783e-38 1936679753
-2.153140 0.327883 -18.221209 1.880790849211783e-38 1936679753
-2.157379 0.429995 -18.257076 1.880790849211783e-38 1936679753
-2.126527 -0.313301 -17.995995 1.880790849211783e-38 1936679753
-2.130354 -0.221092 -18.028379 1.880790849211783e-38 1936679753
-2.162107 0.543924 -18.297092 1.880790849211783e-38 1936679753
-2.165905 0.635428 -18.329231 1.880790849211783e-38 1936679753
-2.134965 -0.110002 -18.067402 1.880790849211783e-38 1936679753
-2.138978 -0.013334 -18.101357 1.880790849211783e-38 1936679753
-2.433132 -3.946288 -20.590673 1.880790849211783e-38 1936679753
-2.340945 -3.637738 -19.810528 1.880790849211783e-38 1936679753
-2.304382 -3.404301 -19.501106 1.880790849211783e-38 1936679753
-2.281431 -3.211432 -19.306881 1.880790849211783e-38 1936679753
-2.260553 -3.012722 -19.130205 1.880790849211783e-38 1936679753
-2.246954 -2.330353 -18.535263 1.880790849211783e-38 1936679753
-2.242740 -2.230746 -18.500498 1.880790849211783e-38 1936679753
-2.199620 0.106189 -18.144796 1.880790849211783e-38 1936679753
-2.204093 0.211232 -18.181700 1.880790849211783e-38 1936679753
-2.237870 -2.115667 -18.460325 1.880790849211783e-38 1936679753
-2.232188 -1.981383 -18.413456 1.880790849211783e-38 1936679753
-2.304177 -2.871102 -19.007301 1.880790849211783e-38 1936679753
-2.288686 -2.727398 -18.879511 1.880790849211783e-38 1936679753
-2.228527 -1.894856 -18.383251 1.880790849211783e-38 1936679753
-2.223222 -1.769503 -18.339499 1.880790849211783e-38 1936679753
-2.275777 -2.607643 -18.773020 1.880790849211783e-38 1936679753
-2.262542 -2.484871 -18.663843 1.880790849211783e-38 1936679753
-2.189352 -0.969037 -18.060095 1.880790849211783e-38 1936679753
-2.185509 -0.878242 -18.028400 1.880790849211783e-38 1936679753
-2.217285 -1.629193 -18.290522 1.880790849211783e-38 1936679753
-2.213672 -1.543817 -18.260721 1.880790849211783e-38 1936679753
-2.180248 -0.753918 -17.985003 1.880790849211783e-38 1936679753
-2.176597 -0.667622 -17.954884 1.880790849211783e-38 1936679753
-2.208602 -1.423984 -18.218893 1.880790849211783e-38 1936679753
-2.203555 -1.304700 -18.177258 1.880790849211783e-38 1936679753
-2.172301 -0.544539 -17.919439 1.880790849211783e-38 1936679753
-2.175650 -0.456687 -17.947069 1.880790849211783e-38 1936679753
-2.199501 -1.208899 -18.143816 1.880790849211783e-38 1936679753
-2.194495 -1.090594 -18.102522 1.880790849211783e-38 1936679753
-2.209067 0.328029 -18.222727 1.880790849211783e-38 1936679753
-2.213417 0.430186 -18.258614 1.880790849211783e-38 1936679753
-2.181750 -0.313438 -17.997391 1.880790849211783e-38 1936679753
-2.185678 -0.221189 -18.029795 1.880790849211783e-38 1936679753
-2.218271 0.544167 -18.298651 1.880790849211783e-38 1936679753
-2.222169 0.635712 -18.330809 1.880790849211783e-38 1936679753
-2.190411 -0.110050 -18.068836 1.880790849211783e-38 1936679753
-2.194530 -0.013340 -18.102810 1.880790849211783e-38 1936679753
-2.491902 -3.941037 -20.555855 1.880790849211783e-38 1936679753
-2.398793 -3.634875 -19.787794 1.880790849211783e-38 1936679753
-2.361375 -3.401692 -19.479128 1.880790849211783e-38 1936679753
-2.341076 -3.213389 -19.311678 1.880790849211783e-38 1936679753
-2.319641 -3.014543 -19.134857 1.880790849211783e-38 1936679753
-2.303541 -2.331061 -18.534025 1.880790849211783e-38 1936679753
-2.299219 -2.231422 -18.499252 1.880790849211783e-38 1936679753
-2.255348 0.106237 -18.146276 1.880790849211783e-38 1936679753
-2.259937 0.211328 -18.183193 1.880790849211783e-38 1936679753
-2.294225 -2.116307 -18.459072 1.880790849211783e-38 1936679753
-2.288398 -1.981980 -18.412189 1.880790849211783e-38 1936679753
-2.362931 -2.872856 -19.011875 1.880790849211783e-38 1936679753
-2.347035 -2.729053 -18.883978 1.880790849211783e-38 1936679753
-2.284643 -1.895426 -18.381979 1.880790849211783e-38 1936679753
-2.279204 -1.770035 -18.338215 1.880790849211783e-38 1936679753
-2.333788 -2.609217 -18.777395 1.880790849211783e-38 1936679753
-2.320208 -2.486362 -18.668129 1.880790849211783e-38 1936679753
-2.244470 -0.969323 -18.058746 1.880790849211783e-38 1936679753
-2.240530 -0.878501 -18.027048 1.880790849211783e-38 1936679753
-2.273115 -1.629681 -18.289228 1.880790849211783e-38 1936679753
-2.269411 -1.544278 -18.259422 1.880790849211783e-38 1936679753
-2.235135 -0.754140 -17.983643 1.880790849211783e-38 1936679753
-2.231390 -0.667818 -17.953512 1.880790849211783e-38 1936679753
-2.264211 -1.424409 -18.217585 1.880790849211783e-38 1936679753
-2.259035 -1.305088 -18.175940 1.880790849211783e-38 1936679753
-2.229444 -0.545301 -17.937851 1.880790849211783e-38 1936679753
-2.231739 -0.457091 -17.956314 1.880790849211783e-38 1936679753
-2.254878 -1.209258 -18.142492 1.880790849211783e-38 1936679753
-2.249744 -1.090917 -18.101187 1.880790849211783e-38 1936679753
-2.265039 0.328178 -18.224243 1.880790849211783e-38 1936679753
-2.269502 0.430382 -18.260153 1.880790849211783e-38 1936679753
-2.237018 -0.313579 -17.998795 1.880790849211783e-38 1936679753
-2.241048 -0.221288 -18.031214 1.880790849211783e-38 1936679753
-2.274481 0.544415 -18.300211 1.880790849211783e-38 1936679753
-2.278480 0.636002 -18.332388 1.880790849211783e-38 1936679753
-2.245903 -0.110100 -18.070276 1.880790849211783e-38 1936679753
-2.250127 -0.013346 -18.104265 1.880790849211783e-38 1936679753
-2.456553 -3.632059 -19.765148 1.880790849211783e-38 1936679753
-2.421624 -3.403822 -19.484110 1.880790849211783e-38 1936679753
-2.400794 -3.215384 -19.316515 1.880790849211783e-38 1936679753
-2.378798 -3.016397 -19.139538 1.880790849211783e-38 1936679753
-2.360282 -2.331904 -18.533697 1.880790849211783e-38 1936679753
-2.355738 -2.232119 -18.498011 1.880790849211783e-38 1936679753
-2.311133 0.106286 -18.147758 1.880790849211783e-38 1936679753
-2.315836 0.211425 -18.184694 1.880790849211783e-38 1936679753
-2.350620 -2.116967 -18.457823 1.880790849211783e-38 1936679753
-2.344648 -1.982597 -18.410931 1.880790849211783e-38 1936679753
-2.421765 -2.874643 -19.016481 1.880790849211783e-38 1936679753
-2.405463 -2.730739 -18.888475 1.880790849211783e-38 1936679753
-2.340800 -1.896015 -18.380718 1.880790849211783e-38 1936679753
-2.335225 -1.770583 -18.336939 1.880790849211783e-38 1936679753
-2.391879 -2.610820 -18.781801 1.880790849211783e-38 1936679753
-2.377952 -2.487880 -18.672441 1.880790849211783e-38 1936679753
-2.299626 -0.969619 -18.057404 1.880790849211783e-38 1936679753
-2.295588 -0.878769 -18.025696 1.880790849211783e-38 1936679753
-2.328985 -1.630185 -18.287941 1.880790849211783e-38 1936679753
-2.325188 -1.544755 -18.258125 1.880790849211783e-38 1936679753
-2.290277 -0.754441 -17.983992 1.880790849211783e-38 1936679753
-2.288762 -0.668763 -17.972094 1.880790849211783e-38 1936679753
-2.319859 -1.424848 -18.216278 1.880790849211783e-38 1936679753
-2.314554 -1.305489 -18.174623 1.880790849211783e-38 1936679753
-2.286753 -0.546069 -17.956320 1.880790849211783e-38 1936679753
-2.289109 -0.457736 -17.974823 1.880790849211783e-38 1936679753
-2.310293 -1.209629 -18.141165 1.880790849211783e-38 1936679753
-2.305032 -1.091251 -18.099852 1.880790849211783e-38 1936679753
-2.321067 0.328330 -18.225767 1.880790849211783e-38 1936679753
-2.325642 0.430581 -18.261692 1.880790849211783e-38 1936679753
-2.292949 -0.313805 -18.004974 1.880790849211783e-38 1936679753
-2.296471 -0.221389 -18.032631 1.880790849211783e-38 1936679753
-2.330747 0.544668 -18.301773 1.880790849211783e-38 1936679753
-2.334847 0.636298 -18.333969 1.880790849211783e-38 1936679753
-2.301449 -0.110150 -18.071714 1.880790849211783e-38 1936679753
-2.305780 -0.013352 -18.105722 1.880790849211783e-38 1936679753
-2.514237 -3.629293 -19.742599 1.880790849211783e-38 1936679753
-2.481958 -3.405991 -19.489132 1.880790849211783e-38 1936679753
-2.460596 -3.217416 -19.321388 1.880790849211783e-38 1936679753
-2.438038 -3.018286 -19.144257 1.880790849211783e-38 1936679753
-2.417659 -2.333342 -18.537920 1.880790849211783e-38 1936679753
-2.412294 -2.232838 -18.496782 1.880790849211783e-38 1936679753
-2.366968 0.106336 -18.149237 1.880790849211783e-38 1936679753
-2.371788 0.211525 -18.186197 1.880790849211783e-38 1936679753
-2.407051 -2.117648 -18.456583 1.880790849211783e-38 1936679753
-2.400934 -1.983233 -18.409679 1.880790849211783e-38 1936679753
-2.480677 -2.876462 -19.021120 1.880790849211783e-38 1936679753
-2.463967 -2.732455 -18.893000 1.880790849211783e-38 1936679753
-2.396993 -1.896622 -18.379454 1.880790849211783e-38 1936679753
-2.391282 -1.771149 -18.335667 1.880790849211783e-38 1936679753
-2.450044 -2.612452 -18.786236 1.880790849211783e-38 1936679753
-2.435770 -2.489427 -18.676785 1.880790849211783e-38 1936679753
-2.354817 -0.969924 -18.056063 1.880790849211783e-38 1936679753
-2.350681 -0.879044 -18.024347 1.880790849211783e-38 1936679753
-2.384890 -1.630704 -18.286657 1.880790849211783e-38 1936679753
-2.381001 -1.545246 -18.256834 1.880790849211783e-38 1936679753
